# PCD v.7 - Point Cloud Data file format
VERSION .7
FIELDS x y z rgb
SIZE 4 4 4 4
TYPE F F F U
COUNT 1 1 1 1
WIDTH 726
HEIGHT 1
VIEWPOINT 0 0 0 1 0 0 0
POINTS 726
DATA ascii
0.27098456025123596 -0.9333913326263428 3.4345319271087646 8547689
0.34052571654319763 -0.959663450717926 3.531203508377075 7431259
0.43670761585235596 -1.0413798093795776 3.8318891525268555 10520706
1.1192547082901 -2.313126564025879 8.511443138122559 2180939
1.5875070095062256 -2.8948659896850586 10.652027130126953 9604741
2.0381124019622803 -3.3253414630889893 12.236016273498535 9933963
2.277771472930908 -3.3624250888824463 12.372469902038574 9999755
2.4872870445251465 -3.352430582046509 12.335694313049316 9604742
2.6936631202697754 -3.3401427268981934 12.290478706359863 9473414
2.9177050590515137 -3.3499577045440674 12.326595306396484 10657430
3.126826047897339 -3.3424696922302246 12.299041748046875 10131087
3.3318817615509033 -3.3318822383880615 12.260083198547363 9276545
3.5187716484069824 -3.3055131435394287 12.163055419921875 10591382
3.687028646469116 -3.2656543254852295 12.016389846801758 9999241
3.8608851432800293 -3.2347960472106934 11.90284252166748 10262160
4.062273025512695 -3.2289865016937256 11.881465911865234 8815229
4.238798141479492 -3.2049453258514404 11.79300308227539 10328204
4.408168315887451 -3.1779820919036865 11.693788528442383 9209729
4.571628570556641 -3.1493446826934814 11.58841323852539 8552313
4.740777492523193 -3.126896381378174 11.50581169128418 9143677
4.887153148651123 -3.091872453689575 11.376937866210938 9077367
5.023301124572754 -3.053379535675049 11.235297203063965 9735554
5.148472309112549 -3.011370897293091 11.080721855163574 8879991
5.316199779510498 -2.996403932571411 11.02564811706543 8156522
5.456582546234131 -2.9676151275634766 10.919716835021973 9011832
5.597737789154053 -2.9411847591400146 10.82246208190918 8879734
5.7248358726501465 -2.9093432426452637 10.705297470092773 7367267
5.837398052215576 -2.872370719909668 10.569252967834473 8879990
-2.182648181915283 -1.0047111511230469 3.951925039291382 6241333
-2.1302359104156494 -1.01273512840271 3.9834868907928467 6768193
-2.07043719291687 -1.0176726579666138 4.002907752990723 6767680
-2.01320481300354 -1.0242621898651123 4.02882719039917 6965570
-1.9501906633377075 -1.0282825231552124 4.04464054107666 6966082
-1.897002100944519 -1.03798246383667 4.082794189453125 7229259
-1.8436845541000366 -1.0483697652816772 4.12365198135376 8215125
-1.786281943321228 -1.0571873188018799 4.158334732055664 7689037
-1.7387456893920898 -1.0728431940078735 4.219915390014648 8149587
-1.7064528465270996 -1.0997141599655151 4.3256096839904785 9670540
-1.8526633977890015 -1.2494707107543945 4.914661407470703 10395035
-1.7881017923355103 -1.2647550106048584 4.974780559539795 10789793
-1.7295597791671753 -1.2860831022262573 5.058671951293945 10131860
-1.6716187000274658 -1.310187816619873 5.153485298156738 2830131
-1.6111454963684082 -1.3349493741989136 5.250882148742676 9739954
-1.5527082681655884 -1.3645012378692627 5.367121696472168 2630952
-1.4939945936203003 -1.3976080417633057 5.49734354019165 7172217
-1.4263888597488403 -1.4263889789581299 5.610550403594971 2303532
-1.3534893989562988 -1.4537479877471924 5.718164443969727 10002857
-1.2749370336532593 -1.4789270162582397 5.817203521728516 12303033
-1.1880970001220703 -1.4980355501174927 5.892364501953125 12500667
-1.098584532737732 -1.5170930624008179 5.967325210571289 11513776
-1.0032753944396973 -1.5313153266906738 6.023266792297363 12698045
-0.9108244180679321 -1.5537595748901367 6.111548900604248 12303286
-0.8134610056877136 -1.5726914405822754 6.186015605926514 11777197
-0.7117704749107361 -1.5877958536148071 6.245427131652832 12171444
-0.6125486493110657 -1.6149011850357056 6.352043151855469 12435386
-0.5105438828468323 -1.6450859308242798 6.470771789550781 8551543
-0.4057696461677551 -1.6810458898544312 6.612216472625732 7368297
-0.16276350617408752 -0.9440284371376038 3.713236093521118 5458502
-0.09038615226745605 -0.87373286485672 3.4367361068725586 3022616
-0.030069056898355484 -0.8720027208328247 3.4299306869506836 3285272
0.02967824600636959 -0.8606692552566528 3.3853514194488525 2496786
0.08898795396089554 -0.8602169752120972 3.383572578430176 2102544
0.14768750965595245 -0.8565875887870789 3.3692970275878906 2168337
0.20517556369304657 -0.8500131368637085 3.3434369564056396 6179911
0.26379403471946716 -0.8500031232833862 3.343397378921509 6048064
0.325522780418396 -0.8581964373588562 3.3756251335144043 6046268
0.40329959988594055 -0.8996685147285461 3.5387508869171143 8612710
0.4955921769142151 -0.9581449627876282 3.7687618732452393 4544598
1.5964757204055786 -2.723400115966797 10.712206840515137 10065551
2.0549583435058594 -3.1365156173706055 12.337152481079102 10197651
2.301975727081299 -3.1789190769195557 12.503942489624023 10065807
2.5120503902435303 -3.167367935180664 12.458507537841797 10131601
2.727146863937378 -3.1634905338287354 12.443256378173828 10197393
2.955705404281616 -3.1746468544006348 12.487138748168945 10526099
3.169736385345459 -3.169736862182617 12.467824935913086 10328977
3.3830416202545166 -3.164781332015991 12.448332786560059 9013114
3.566525936126709 -3.1342201232910156 12.328124046325684 10328463
3.7302849292755127 -3.0908076763153076 12.157365798950195 10065034
3.9005470275878906 -3.0571858882904053 12.025117874145508 9801863
4.096116542816162 -3.0458309650421143 11.980453491210938 9276549
4.258048057556152 -3.0117905139923096 11.846559524536133 10459276
4.441593170166016 -2.9954934120178223 11.78245735168457 9473154
4.593815803527832 -2.9604594707489014 11.644654273986816 9341828
4.775243759155273 -2.946427345275879 11.589460372924805 9340539
4.9123005867004395 -2.907280206680298 11.435479164123535 9275003
5.030585765838623 -2.860529661178589 11.251590728759766 9603967
5.162482261657715 -2.8247547149658203 11.11087417602539 9603711
5.343776702880859 -2.8176281452178955 11.082842826843262 9538175
5.474043369293213 -2.7850399017333984 10.954660415649414 9143161
5.608811855316162 -2.756873846054077 10.8438720703125 9340799
5.715881824493408 -2.7173867225646973 10.688553810119629 8880505
5.841497898101807 -2.68894362449646 10.576676368713379 8813939
-2.188303232192993 -0.9378442764282227 3.9621641635894775 6438969
-2.129168748855591 -0.9424190521240234 3.9814913272857666 7228999
-2.0691890716552734 -0.9469170570373535 4.000494480133057 7228745
-2.0112104415893555 -0.9526786804199219 4.02483606338501 6900288
-1.952427625656128 -0.9584645628929138 4.049279689788818 7886414
-1.901415467262268 -0.9686457514762878 4.092292785644531 7952983
-1.8504197597503662 -0.9796340465545654 4.138715744018555 8610141
-1.799594521522522 -0.9916134476661682 4.18932580947876 7820367
-1.7410627603530884 -1.0001850128173828 4.225538730621338 7491656
-1.7049295902252197 -1.0229578018188477 4.32174825668335 9339777
-1.8540748357772827 -1.1641865968704224 4.918405532836914 9802898
-1.7858613729476929 -1.1760551929473877 4.968547344207764 10921892
-1.7276561260223389 -1.1960697174072266 5.053103923797607 10460827
-1.6721147298812866 -1.2201919555664062 5.155014514923096 3422263
-1.61285400390625 -1.2442017793655396 5.256450176239014 5857398
-1.5541400909423828 -1.2715693712234497 5.372071266174316 9410720
-1.4940800666809082 -1.3012957572937012 5.497657775878906 8753559
-1.426809310913086 -1.3284087181091309 5.612204074859619 8094856
-1.3550225496292114 -1.355022668838501 5.724641799926758 9212049
-1.2796800136566162 -1.3820545673370361 5.8388447761535645 5197386
-1.1920827627182007 -1.3994016647338867 5.912132263183594 4736835
-1.1006687879562378 -1.415145754814148 5.978646755218506 5065030
-1.0052939653396606 -1.428575873374939 6.035385608673096 4275770
-0.9112582802772522 -1.4472928047180176 6.114459991455078 4143929
-0.812565267086029 -1.4626176357269287 6.179203987121582 4078649
-0.711889386177063 -1.4785397052764893 6.2464704513549805 4735809
-0.6117217540740967 -1.5014989376068115 6.343468189239502 4472892
-0.5029956102371216 -1.5089870691299438 6.37510347366333 4932415
-0.3928024470806122 -1.5150953531265259 6.400909423828125 6446683
-0.1629902422428131 -0.8801474571228027 3.7184090614318848 5987163
-0.09218760579824448 -0.829688549041748 3.505232334136963 2170138
-0.030032115057110786 -0.810867190361023 3.4257168769836426 6706000
0.029572291299700737 -0.7984520196914673 3.373265504837036 5850688
0.08922968059778214 -0.803067147731781 3.392763614654541 3678491
0.14757411181926727 -0.7969002723693848 3.3667099475860596 3680030
0.20484590530395508 -0.7901200652122498 3.3380651473999023 1249034
0.26381632685661316 -0.7914490699768066 3.343679904937744 723463
0.3243493437767029 -0.7961302995681763 3.363456964492798 4732724
0.4003978967666626 -0.8315956592559814 3.5132896900177 7822168
0.5003191232681274 -0.9005745053291321 3.804708480834961 2509386
1.762779951095581 -2.7997095584869385 11.828092575073242 10328978
2.046916961669922 -2.9087769985198975 12.2888765335083 10526357
2.2973132133483887 -2.953688859939575 12.478617668151855 10460564
2.5124242305755615 -2.9493680000305176 12.460363388061523 10658201
2.722595691680908 -2.940403461456299 12.422490119934082 10066063
2.9545114040374756 -2.954511880874634 12.482093811035156 10262670
3.167222023010254 -2.9487931728363037 12.457934379577637 10328463
3.3707175254821777 -2.935786485671997 12.402984619140625 8749935
3.5490081310272217 -2.9037342071533203 12.267571449279785 10591635
3.7233166694641113 -2.8722732067108154 12.134655952453613 10328205
3.9053194522857666 -2.849827766418457 12.039830207824707 10262413
4.094913959503174 -2.8349406719207764 11.976935386657715 9736842
4.257119178771973 -2.803468942642212 11.843975067138672 10656655
4.446609973907471 -2.792057991027832 11.79576587677002 10131084
4.604038238525391 -2.762423038482666 11.67056655883789 9144450
4.781421661376953 -2.746774673461914 11.60445499420166 10261898
4.915591716766357 -2.7085916996002197 11.443140983581543 10195850
5.025749683380127 -2.660691499710083 11.240774154663086 9669504
5.1701979637146 -2.6338748931884766 11.127480506896973 9472126
5.351447582244873 -2.6270744800567627 11.09875202178955 9932676
5.503385066986084 -2.6068665981292725 11.013378143310547 10064518
5.64010763168335 -2.581066608428955 10.904378890991211 9209212
5.764544486999512 -2.5515201091766357 10.779552459716797 9340283
5.911993026733398 -2.5337116718292236 10.704316139221191 9405819
-2.197861671447754 -0.8721674680709839 3.979471206665039 6505534
-2.1355509757995605 -0.8752259612083435 3.9934260845184326 6833986
-2.076171398162842 -0.879733681678772 4.013993740081787 7164236
-2.0187041759490967 -0.8853966593742371 4.039832592010498 7229256
-1.9597795009613037 -0.8908089995384216 4.06452751159668 8083536
-1.9102191925048828 -0.901046872138977 4.111240386962891 8281947
-1.8601726293563843 -0.9118494391441345 4.160529613494873 8741728
-1.8100929260253906 -0.9235169291496277 4.2137651443481445 8084051
-1.75581955909729 -0.9339466691017151 4.261353492736816 8149330
-1.7207430601119995 -0.9559684991836548 4.361833095550537 9340034
-1.8601182699203491 -1.081464171409607 4.934437274932861 10724513
-1.7958990335464478 -1.0950604677200317 4.996473789215088 11119017
-1.7354607582092285 -1.1124749183654785 5.075931072235107 11053221
-1.678256869316101 -1.1339575052261353 5.1739501953125 8749437
-1.6185404062271118 -1.1561002731323242 5.274982452392578 7038560
-1.5555565357208252 -1.1784520149230957 5.376967430114746 7697005
-1.4924728870391846 -1.203607201576233 5.491744041442871 7763826
-1.4270033836364746 -1.2301753759384155 5.612967491149902 9211015
-1.3530070781707764 -1.2527844905853271 5.716126441955566 11316651
-1.273569941520691 -1.27357017993927 5.8109660148620605 3815218
-1.1863492727279663 -1.2895101308822632 5.883696556091309 4144441
-1.0980596542358398 -1.3072140216827393 5.964474201202393 4143927
-1.004166603088379 -1.3212718963623047 6.028616905212402 4604733
-0.9136183261871338 -1.3435566425323486 6.130295753479004 4341050
-0.8178113102912903 -1.3630189895629883 6.219098091125488 4670271
-0.7177982926368713 -1.380381464958191 6.298318386077881 3946550
-0.615614652633667 -1.399124264717102 6.38383674621582 4472893
-0.5073421001434326 -1.4092838764190674 6.430191993713379 4801342
-0.39003869891166687 -1.3929954767227173 6.355872631072998 9668219
-0.16282926499843597 -0.8141463994979858 3.714736223220825 6053470
-0.09436336159706116 -0.7863614559173584 3.587960958480835 4471608
-0.030337372794747353 -0.7584344148635864 3.4605369567871094 9071717
0.029651697725057602 -0.7412925362586975 3.3823232650756836 6772307
0.08969917893409729 -0.7474932670593262 3.4106154441833496 6246221
0.1484837383031845 -0.7424187660217285 3.3874619007110596 855307
0.2083108127117157 -0.7439672946929932 3.3945274353027344 658441
0.2676730453968048 -0.7435364127159119 3.392561197280884 4997953
0.3262809216976166 -0.7415475845336914 3.3834869861602783 9401968
0.39436236023902893 -0.7583891749382019 3.4603309631347656 8546662
0.49696364998817444 -0.8282728791236877 3.779191493988037 1918276
1.7457202672958374 -2.5672361850738525 11.713624000549316 10394515
2.073225498199463 -2.727928638458252 12.446822166442871 10328977
2.2906334400177 -2.7269446849823 12.442333221435547 10591893
2.5122411251068115 -2.7306971549987793 12.459454536437988 10328719
2.7144625186920166 -2.7144627571105957 12.385380744934082 10723478
2.938627243041992 -2.720951557159424 12.414987564086914 10854550
3.1603329181671143 -2.7244250774383545 12.43083667755127 10394513
3.3677022457122803 -2.7158889770507812 12.391888618469238 9342073
3.5444250106811523 -2.6851706504821777 12.251729011535645 10920341
3.7282168865203857 -2.6630122661590576 12.150626182556152 10920342
3.9101133346557617 -2.6419689655303955 12.054610252380371 10394513
4.0956034660339355 -2.625387191772461 11.978952407836914 9604996
4.249782085418701 -2.5913307666778564 11.823562622070312 10261897
4.428155422210693 -2.574509382247925 11.746809959411621 11052186
4.582393169403076 -2.545774221420288 11.615699768066406 9868428
4.7573370933532715 -2.530498743057251 11.546001434326172 10919573
4.884854316711426 -2.4922728538513184 11.371586799621582 10590863
5.004668235778809 -2.4532692432403564 11.193622589111328 10854294
5.145938873291016 -2.4273297786712646 11.075268745422363 10525585
5.342586994171143 -2.4284489154815674 11.080374717712402 10064262
5.480104923248291 -2.403555154800415 10.966790199279785 10327436
5.610697269439697 -2.3774144649505615 10.847517967224121 10196366
5.714900493621826 -2.342172622680664 10.686718940734863 10130055
5.892638206481934 -2.338348627090454 10.669271469116211 9143160
-2.2028067111968994 -0.8041993379592896 3.98842453956604 6899777
-2.1434061527252197 -0.8081696629524231 4.008115291595459 6834756
-2.082014560699463 -0.8116328716278076 4.0252909660339355 7099213
-2.020960807800293 -0.8154755234718323 4.04434871673584 7295048
-1.9616605043411255 -0.820330798625946 4.0684285163879395 8084051
-1.9115054607391357 -0.8295213580131531 4.114008903503418 7821393
-1.8624521493911743 -0.839929461479187 4.165627956390381 8807262
-1.811808466911316 -0.8504407405853271 4.217758655548096 8478294
-1.7581089735031128 -0.8603513240814209 4.266910076141357 8543830
-1.719670057296753 -0.8789425492286682 4.3591132164001465 8944247
-1.860952377319336 -0.9953932762145996 4.936650276184082 10921892
-1.8018825054168701 -1.0108122825622559 5.013120651245117 11316396
-1.7440714836120605 -1.0285550355911255 5.101116180419922 11119014
-1.683847427368164 -1.0467160940170288 5.191185474395752 9934226
-1.6235865354537964 -1.0669283866882324 5.291428565979004 10131861
-1.5592389106750488 -1.0867424011230469 5.38969612121582 10856097
-1.4962729215621948 -1.1101380586624146 5.5057268142700195 10922406
-1.43059504032135 -1.1346099376678467 5.6270952224731445 10658718
-1.3562216758728027 -1.1553000211715698 5.72970724105835 11711405
-1.2733278274536133 -1.1714617013931274 5.809861183166504 3749939
-1.1822043657302856 -1.1822044849395752 5.863139629364014 4341306
-1.0943341255187988 -1.1985565423965454 5.94423770904541 4077876
-1.0002702474594116 -1.2108535766601562 6.00522518157959 5064773
-0.9089199900627136 -1.229715347290039 6.0987701416015625 4670528
-0.8146182298660278 -1.2490814924240112 6.1948161125183105 5459275
-0.7153840661048889 -1.2656795978546143 6.277134895324707 4340793
-0.6140307188034058 -1.2838826179504395 6.367412090301514 4604478
-0.5071426630020142 -1.2960313558578491 6.427664279937744 5854030
-0.3933217525482178 -1.292343020439148 6.409371376037598 5854548
-0.173338383436203 -0.7973566055297852 3.9544880390167236 6711658
-0.09478992223739624 -0.726722776889801 3.604179620742798 5258805
-0.030282309278845787 -0.6964932084083557 3.454256057739258 5652795
0.02988608367741108 -0.6873800158500671 3.4090592861175537 6048843
0.08909782022237778 -0.6830833554267883 3.3877499103546143 6970199
0.1476723998785019 -0.6792930364608765 3.3689520359039307 9008756
0.20585688948631287 -0.6763869524002075 3.354539394378662 1052172
0.2661357522010803 -0.680124819278717 3.373076915740967 10191746
0.3284286558628082 -0.6867145299911499 3.405758857727051 10847356
0.3969539403915405 -0.7023031711578369 3.4830706119537354 5983562
0.5008097290992737 -0.7679083943367004 3.8084394931793213 1787205
1.7189432382583618 -2.325629472732544 11.533952713012695 10526356
2.0660459995269775 -2.5010032653808594 12.403718948364258 10197390
2.28555965423584 -2.503232002258301 12.414772987365723 10591892
2.489243745803833 -2.489243984222412 12.345398902893066 10789271
2.699803352355957 -2.4838192462921143 12.31849479675293 11118237
2.9335005283355713 -2.498908042907715 12.393327713012695 11118235
3.1425347328186035 -2.4923553466796875 12.36082935333252 10723733
3.3595306873321533 -2.4925553798675537 12.361821174621582 9802376
3.5413026809692383 -2.4681808948516846 12.240936279296875 10920341
3.7279670238494873 -2.4498071670532227 12.149811744689941 11052186
3.9024159908294678 -2.4258265495300293 12.030879974365234 10394514
4.076582431793213 -2.4041385650634766 11.923318862915039 10394512
4.2274885177612305 -2.37151837348938 11.7615385055542 11316132
4.398737907409668 -2.352813720703125 11.66877269744873 11381411
4.557100296020508 -2.3291847705841064 11.55158519744873 10131341
4.724362373352051 -2.311922073364258 11.465971946716309 11051929
4.854722499847412 -2.278747797012329 11.301443099975586 10459790
4.9732513427734375 -2.2428390979766846 11.1233549118042 10788757
5.12271785736084 -2.2230663299560547 11.025291442871094 10854035
5.310022830963135 -2.220555067062378 11.012837409973145 10393227
5.465536117553711 -2.2053921222686768 10.937636375427246 10130571
5.578880310058594 -2.1748178005218506 10.786003112792969 10328206
5.7257256507873535 -2.1588804721832275 10.706961631774902 9801603
5.86829948425293 -2.142395257949829 10.625203132629395 9735554
-2.2074203491210938 -0.7358068823814392 3.9967782497406006 7032390
-2.151679754257202 -0.7407422661781311 4.023586273193359 6374205
-2.089493751525879 -0.7437182068824768 4.039751052856445 8086625
-2.0293185710906982 -0.7476438283920288 4.061074256896973 7360069
-1.9658435583114624 -0.7505949139595032 4.077104091644287 7886414
-1.9155755043029785 -0.7590017318725586 4.122768402099609 7952465
-1.8669031858444214 -0.7687249183654785 4.175583362579346 8939363
-1.8160836696624756 -0.7783216834068298 4.227711200714111 8412759
-1.7632522583007812 -0.7878362536430359 4.279392719268799 8544344
-1.7174568176269531 -0.8014799952507019 4.353503227233887 8285802
-1.8638001680374146 -0.9102281332015991 4.944204807281494 10197913
-1.804405689239502 -0.9242079257965088 5.020140647888184 10395290
-1.7456989288330078 -0.93999183177948 5.1058759689331055 10395289
-1.6855909824371338 -0.9566868543624878 5.196560859680176 10658205
-1.6240448951721191 -0.9744271039962769 5.292922496795654 11118757
-1.562055230140686 -0.9940352439880371 5.399430751800537 10592413
-1.4970382452011108 -1.0141228437423706 5.508543014526367 11711409
-1.4323557615280151 -1.037223219871521 5.634020805358887 11579820
-1.3564231395721436 -1.0549958944320679 5.7305588722229 11184807
-1.2742563486099243 -1.0703754425048828 5.814097881317139 6381402
-1.1819539070129395 -1.0791754722595215 5.861897945404053 3486511
-1.0954618453979492 -1.0954619646072388 5.950363636016846 4472893
-0.9999794960021973 -1.1052405834197998 6.003479480743408 4209721
-0.9081675410270691 -1.1218541860580444 6.093721389770508 4275514
-0.8123186826705933 -1.1372462511062622 6.177329063415527 5591115
-0.7125378847122192 -1.1510229110717773 6.252161026000977 4933186
-0.6087146401405334 -1.1620917320251465 6.31228494644165 6050639
-0.5023375749588013 -1.1721210479736328 6.366762638092041 6116942
-0.39195653796195984 -1.1758695840835571 6.387124538421631 6117721
-0.2560313045978546 -1.075331687927246 5.841019153594971 5197899
-0.09401128441095352 -0.6580790281295776 3.5745737552642822 4272943
-0.030110321938991547 -0.6323168873786926 3.4346377849578857 7756113
0.02966170199215412 -0.6228957772254944 3.3834643363952637 6509134
0.08762700855731964 -0.6133891344070435 3.3318254947662354 6904405
0.14567358791828156 -0.6118291020393372 3.3233518600463867 7891303
0.20258139073848724 -0.6077442169189453 3.3011634349823 9271413
0.26323315501213074 -0.6142107248306274 3.3362884521484375 8679274
0.32730793952941895 -0.6248607039451599 3.394137382507324 10189684
0.3944191336631775 -0.6371386647224426 3.460829257965088 3750713
0.4894636571407318 -0.6852491497993469 3.7221572399139404 1523518
1.6583235263824463 -2.0485177040100098 11.12720012664795 10592150
2.0462687015533447 -2.2616658210754395 12.284984588623047 9999754
2.2689669132232666 -2.2689671516418457 12.324645042419434 10460305
2.4853570461273193 -2.2692394256591797 12.326123237609863 10789270
2.695918321609497 -2.26457142829895 12.300768852233887 10854806
2.9326553344726562 -2.280954360961914 12.38975715637207 10986651
3.1560771465301514 -2.285435438156128 12.41409683227539 10986649
3.357013463973999 -2.27410626411438 12.352559089660645 10591892
3.545835494995117 -2.256441116333008 12.25660514831543 10986134
3.741539716720581 -2.2449238300323486 12.194046020507812 11051929
3.913853883743286 -2.221376657485962 12.066141128540039 10131855
4.075551509857178 -2.1945278644561768 11.920303344726562 11315617
4.212390422821045 -2.1575658321380615 11.719532012939453 11776169
4.380524635314941 -2.1393260955810547 11.62045669555664 11381407
4.536498546600342 -2.117033004760742 11.499363899230957 10657681
4.713357925415039 -2.105968713760376 11.439264297485352 11644584
4.837569236755371 -2.073244333267212 11.261510848999023 11183260
4.962183952331543 -2.043252468109131 11.098600387573242 10788244
5.122058391571045 -2.0294950008392334 11.023872375488281 10261898
5.318875312805176 -2.030843496322632 11.031197547912598 9143416
5.472023963928223 -2.0160090923309326 10.9506196975708 10327946
5.598556995391846 -1.9927068948745728 10.82404613494873 10262156
5.727179050445557 -1.9716520309448242 10.709678649902344 9735298
5.860450267791748 -1.9534837007522583 10.610991477966309 9208953
-2.21891188621521 -0.6691957712173462 4.017584800720215 6702912
-2.1615185737609863 -0.6732599139213562 4.041984558105469 7426637
-2.0996222496032715 -0.6761496067047119 4.059332847595215 7756372
-2.039588689804077 -0.679862916469574 4.0816264152526855 8214863
-1.9771907329559326 -0.6830295920372009 4.100637912750244 8216147
-1.9263010025024414 -0.6905607581138611 4.145852088928223 8084567
-1.8764837980270386 -0.6990822553634644 4.197011470794678 8610398
-1.8215088844299316 -0.7062994837760925 4.240340709686279 8479067
-1.7652673721313477 -0.713618814945221 4.28428316116333 8544343
-1.726548194885254 -0.7289870977401733 4.3765482902526855 8679789
-1.8674302101135254 -0.8251436948776245 4.953834056854248 11053222
-1.8070422410964966 -0.8374099135398865 5.027475833892822 10658463
-1.7502059936523438 -0.852664589881897 5.119058609008789 11381930
-1.6938400268554688 -0.8698098659515381 5.221992015838623 10921377
-1.6328752040863037 -0.8864180445671082 5.3217010498046875 11711151
-1.5686092376708984 -0.9031386971473694 5.422085285186768 11382185
-1.5026373863220215 -0.9209714531898499 5.52914571762085 11711152
-1.4356721639633179 -0.9406128525733948 5.647065162658691 11053477
-1.3611763715744019 -0.9578649997711182 5.750639915466309 11711408
-1.279411792755127 -0.9723530411720276 5.837620735168457 10987427
-1.1895445585250854 -0.9826673269271851 5.899543285369873 6117715
-1.1018568277359009 -0.9969181418418884 5.985099792480469 4539198
-1.007341980934143 -1.0073421001434326 6.047680854797363 5131080
-0.9147326946258545 -1.022348403930664 6.137773036956787 5919825
-0.8185109496116638 -1.036780595779419 6.2244181632995605 6841183
-0.7168027758598328 -1.0476349592208862 6.289583206176758 8552052
-0.6076659560203552 -1.049604892730713 6.30141019821167 10065291
-0.49305322766304016 -1.0408902168273926 6.249090671539307 10460823
-0.3818959891796112 -1.0365748405456543 6.2231831550598145 10263189
-0.25712037086486816 -0.9770575165748596 5.865864276885986 4407092
-0.10787142068147659 -0.6831857562065125 4.1015753746032715 4867383
-0.03012719564139843 -0.5724167823791504 3.4365625381469727 6573380
0.02935410477221012 -0.5577280521392822 3.348377227783203 5654081
0.08723882585763931 -0.5525126457214355 3.317065954208374 4602166
0.14372967183589935 -0.5461728572845459 3.2790043354034424 7758942
0.20141386985778809 -0.5466948747634888 3.2821383476257324 9862261
0.26274731755256653 -0.5546888113021851 3.3301308155059814 8873825
0.3261200189590454 -0.5632982850074768 3.3818187713623047 6049353
0.3969261646270752 -0.5801228880882263 3.4828271865844727 1192235
0.48758238554000854 -0.6176044344902039 3.7078511714935303 1391416
1.4950246810913086 -1.6709100008010864 10.031478881835938 6776924
2.0015439987182617 -2.001544237136841 12.016474723815918 7631720
2.2420597076416016 -2.0285303592681885 12.178488731384277 8420723
2.4495961666107178 -2.0235795974731445 12.14876651763916 9210240
2.679762125015259 -2.036619186401367 12.227051734924316 10196878
2.9181153774261475 -2.0534889698028564 12.328330039978027 10526356
3.129849672317505 -2.050591230392456 12.310934066772461 10263184
3.3333637714385986 -2.043029546737671 12.265536308288574 9802632
3.5243520736694336 -2.029172420501709 12.182344436645508 10393484
3.719231128692627 -2.0190114974975586 12.12134075164795 10656658
3.8874423503875732 -1.996254324913025 11.984716415405273 9473668
4.0408549308776855 -1.968621850013733 11.818821907043457 11447973
4.201972007751465 -1.9472554922103882 11.690546989440918 11184544
4.355068683624268 -1.924332857131958 11.552928924560547 10986395
4.5112833976745605 -1.9047642946243286 11.435446739196777 11249824
4.677331447601318 -1.890836238861084 11.351828575134277 11117981
4.81021785736084 -1.8651868104934692 11.19783878326416 10131083
4.941912651062012 -1.8411049842834473 11.053260803222656 9538432
5.1173481941223145 -1.8345210552215576 11.013734817504883 9932676
5.304512977600098 -1.8324682712554932 11.001410484313965 10590608
5.464615821838379 -1.8215388059616089 10.93579387664795 9801603
5.59523344039917 -1.8018550872802734 10.817620277404785 9669759
5.750224590301514 -1.7910536527633667 10.75277328491211 9406329
5.871186256408691 -1.7706754207611084 10.630430221557617 9669760
-2.2207725048065186 -0.5992560982704163 4.02095365524292 8477266
-2.170865774154663 -0.6049954891204834 4.059463977813721 7820363
-2.109415054321289 -0.6077975630760193 4.078266143798828 8741465
-2.0488150119781494 -0.6110501885414124 4.100090503692627 8085598
-1.9838080406188965 -0.6131771206855774 4.114361763000488 6375491
-1.9311504364013672 -0.6194257140159607 4.156289577484131 8020062
-1.8814349174499512 -0.6271450519561768 4.208085536956787 9072236
-1.8285534381866455 -0.6343961358070374 4.256740093231201 8938849
-1.7685471773147583 -0.6396872997283936 4.292243003845215 8741210
-1.7228829860687256 -0.6508669853210449 4.367257595062256 7492687
-1.8656518459320068 -0.7375833988189697 4.9491167068481445 10921635
-1.809546709060669 -0.7502999305725098 5.034443378448486 10921892
-1.7511910200119019 -0.7633397579193115 5.121939659118652 11184807
-1.6951218843460083 -0.7788398861885071 5.2259440422058105 10921377
-1.6312371492385864 -0.7923153042793274 5.3163628578186035 11250855
-1.5659559965133667 -0.8067046999931335 5.412914276123047 11908531
-1.5000271797180176 -0.8225956559181213 5.519541263580322 11645613
-1.433954119682312 -0.8405938744544983 5.640307903289795 11711150
-1.3584954738616943 -0.855349063873291 5.73931360244751 12369338
-1.2771533727645874 -0.8684644103050232 5.8273162841796875 12435131
-1.189099907875061 -0.8788999915122986 5.897337913513184 12829887
-1.1045063734054565 -0.8941243290901184 5.999492168426514 11908785
-1.0131083726882935 -0.906465470790863 6.082300186157227 12303285
-0.9222506880760193 -0.9222508072853088 6.188218116760254 12106162
-0.8269703388214111 -0.9372331500053406 6.288748264312744 12632506
-0.7260517477989197 -0.9494523406028748 6.3707380294799805 12435127
-0.6136000752449036 -0.9482911825180054 6.362946510314941 6447452
-0.4888407289981842 -0.9233658909797668 6.195700168609619 4406586
-0.37562936544418335 -0.9122428297996521 6.121065616607666 5065030
-0.2540181577205658 -0.8636618256568909 5.79509162902832 7629928
-0.10884883999824524 -0.6168102025985718 4.138739585876465 7169122
-0.029956068843603134 -0.509253203868866 3.4170422554016113 6638920
0.029070889577269554 -0.49420517683029175 3.3160712718963623 4929590
0.08644787222146988 -0.4898712933063507 3.2869913578033447 9271668
0.14299710094928741 -0.48619014024734497 3.262291193008423 7363411
0.20166121423244476 -0.48974868655204773 3.2861688137054443 8743010
0.2640274167060852 -0.4987185299396515 3.346355438232422 5983046
0.33366668224334717 -0.5156667232513428 3.460076332092285 7695470
0.4089049994945526 -0.5347219705581665 3.587935209274292 1126957
0.48665982484817505 -0.5515478849411011 3.7008354663848877 1653560
0.7029159069061279 -0.7029159665107727 4.716501712799072 4276532
2.0055344104766846 -1.7944257259368896 12.040431022644043 7038050
2.1916513442993164 -1.7741941213607788 11.904679298400879 5780279
2.423783779144287 -1.7914927005767822 12.020750999450684 5653057
2.6830332279205322 -1.8244627714157104 12.24197769165039 5132104
2.9138591289520264 -1.8346521854400635 12.310347557067871 5526860
3.1114957332611084 -1.823980450630188 12.238740921020508 6249556
3.30686616897583 -1.8134429454803467 12.168035507202148 6709851
3.497769355773926 -1.8018814325332642 12.090458869934082 7104865
3.6982574462890625 -1.7962965965270996 12.052985191345215 8946812
3.859567642211914 -1.7733149528503418 11.898780822753906 9079170
4.020992279052734 -1.7527403831481934 11.760726928710938 11052958
4.179874420166016 -1.7331187725067139 11.629067420959473 11447457
4.332608699798584 -1.7128920555114746 11.493348121643066 11314588
4.490574836730957 -1.696439504623413 11.382953643798828 11381153
4.640554904937744 -1.6784987449645996 11.262572288513184 11117981
4.771963596343994 -1.6555793285369873 11.108785629272461 10920602
4.903481960296631 -1.6344940662384033 10.967305183410645 9472897
5.081429958343506 -1.6298928260803223 10.936430931091309 9867142
5.2736992835998535 -1.6300526857376099 10.937503814697266 10129798
5.43206787109375 -1.6200906038284302 10.870658874511719 9932933
5.575364112854004 -1.6064610481262207 10.779206275939941 9275003
5.732352256774902 -1.597541093826294 10.719353675842285 9078134
5.862495422363281 -1.581943392753601 10.614694595336914 8682863
-2.237544536590576 -0.5327486991882324 4.051321029663086 8543571
-2.179959535598755 -0.5360556840896606 4.0764689445495605 7886157
-2.12052321434021 -0.5391161441802979 4.099742412567139 8740696
-2.0558347702026367 -0.5410091876983643 4.114138126373291 7559511
-1.9882160425186157 -0.5422407984733582 4.123504161834717 7953237
-1.933337688446045 -0.5471711158752441 4.160996913909912 9204338
-1.882790207862854 -0.553761899471283 4.211116790771484 8940393
-1.8299171924591064 -0.5601787567138672 4.259914398193359 8151134
-1.771276831626892 -0.5653011798858643 4.298868179321289 7558738
-1.7300399541854858 -0.576680064201355 4.385399341583252 7558224
-1.8614219427108765 -0.6493332982063293 4.937895774841309 10461086
-1.8087761402130127 -0.6617474555969238 5.032299995422363 10856099
-1.7515273094177246 -0.6736644506454468 5.122923374176025 11448236
-1.6941072940826416 -0.6868003010749817 5.222815990447998 11316650
-1.63089120388031 -0.6989535093307495 5.315235137939453 11448236
-1.5653938055038452 -0.7115427255630493 5.410971164703369 11514027
-1.5000150203704834 -0.7258138656616211 5.519496440887451 11908785
-1.4318408966064453 -0.7406073808670044 5.63199520111084 11448234
-1.3562822341918945 -0.7534902095794678 5.729963302612305 9211270
-1.2744578123092651 -0.7646747827529907 5.815017223358154 12698301
-1.1893047094345093 -0.7756335139274597 5.898353576660156 11250855
-1.105075478553772 -0.7893396615982056 6.002583026885986 12566715
-1.016343593597412 -0.8023765683174133 6.101722717285156 11645613
-0.926980197429657 -0.8179237842559814 6.219952583312988 11645613
-0.8304752111434937 -0.8304752707481384 6.315401077270508 12698301
-0.7285065650939941 -0.8405845761299133 6.39227819442749 12764093
-0.616616427898407 -0.8408406376838684 6.394225120544434 4276283
-0.4902001917362213 -0.8170004487037659 6.212930679321289 4012600
-0.37698179483413696 -0.8078182339668274 6.143104076385498 4538168
-0.24597810208797455 -0.7379343509674072 5.611668109893799 5852229
-0.09215909987688065 -0.460795521736145 3.504148483276367 6903635
-0.029671000316739082 -0.44506505131721497 3.3845250606536865 6114117
0.029098929837346077 -0.4364840090274811 3.319269895553589 7561567
0.08642593771219254 -0.43212977051734924 3.2861576080322266 7888985
0.14321140944957733 -0.4296342730522156 3.2671806812286377 5389620
0.2036149501800537 -0.4363178312778473 3.3180060386657715 3614497
0.2766354978084564 -0.46105924248695374 3.5061538219451904 5720390
0.34759047627449036 -0.47398701310157776 3.604464054107666 8221554
0.41228845715522766 -0.4757175147533417 3.6176235675811768 995629
0.4877912700176239 -0.4877913296222687 3.709439516067505 1915702
0.7318800091743469 -0.6457765102386475 4.910848140716553 7957092
1.7978242635726929 -1.419335126876831 10.79342269897461 7691615
2.2009341716766357 -1.5720959901809692 11.955102920532227 3433376
2.4540822505950928 -1.600488543510437 12.171015739440918 5790052
2.6980161666870117 -1.6188099384307861 12.310340881347656 5789254
2.911654472351074 -1.6175860166549683 12.301033020019531 5985862
3.0821897983551025 -1.5942362546920776 12.123469352722168 5525569
3.263606309890747 -1.5791645050048828 12.008854866027832 4341553
3.455533266067505 -1.5706971883773804 11.944464683532715 3289891
3.6426401138305664 -1.5611317157745361 11.871723175048828 4144942
3.8108744621276855 -1.5449492931365967 11.748662948608398 5395268
3.9732744693756104 -1.5281827449798584 11.621160507202148 6052174
4.130073070526123 -1.5110026597976685 11.490513801574707 7039324
4.277196407318115 -1.4920454025268555 11.346352577209473 7894632
4.432307720184326 -1.4774360656738281 11.235255241394043 8223087
4.585986614227295 -1.4636129140853882 11.130136489868164 9144448
4.722731113433838 -1.4457341432571411 10.99417495727539 8420725
4.84840726852417 -1.4260023832321167 10.844123840332031 7828074
5.031420707702637 -1.4239870309829712 10.828798294067383 8814967
5.2089948654174805 -1.4206351041793823 10.803308486938477 8485746
5.382969856262207 -1.4165711402893066 10.772403717041016 8748920
5.507755279541016 -1.4002768993377686 10.648493766784668 9406846
5.6844024658203125 -1.3978039026260376 10.629687309265137 9538175
5.820645809173584 -1.3858681917190552 10.538921356201172 9603966
-2.2431366443634033 -0.4628694951534271 4.061446189880371 7952206
-2.1888086795806885 -0.4664674997329712 4.093016624450684 7820364
-2.1262335777282715 -0.46849220991134644 4.110782623291016 8477780
-2.0599896907806396 -0.4698222577571869 4.122453212738037 7163209
-1.989445686340332 -0.47023266553878784 4.126054286956787 7492689
-1.9363229274749756 -0.4749471843242645 4.167421817779541 8744817
-1.8858520984649658 -0.48070743680000305 4.217965126037598 7559767
-1.835663080215454 -0.48701271414756775 4.273290634155273 7362390
-1.7835614681243896 -0.4933255612850189 4.328682899475098 6770511
-1.7319577932357788 -0.500343382358551 4.390260696411133 7229261
-1.8642522096633911 -0.5636111497879028 4.945403575897217 10987429
-1.8123810291290283 -0.5746574401855469 5.042328834533691 11053222
-1.7554460763931274 -0.585148811340332 5.134385108947754 11250601
-1.6975029706954956 -0.5964200496673584 5.2332844734191895 11316650
-1.631826400756836 -0.6061069965362549 5.3182830810546875 11447979
-1.5690178871154785 -0.6180980205535889 5.423498153686523 11579822
-1.5021347999572754 -0.6299276351928711 5.527296543121338 12040115
-1.4326480627059937 -0.6422216296195984 5.6351704597473145 9869203
-1.3571836948394775 -0.6534588932991028 5.733771800994873 6645094
-1.2758451700210571 -0.6634395718574524 5.821347236633301 11711408
-1.1882569789886475 -0.6716235876083374 5.893157958984375 9473931
-1.1035619974136353 -0.6831575632095337 5.9943623542785645 12435129
-1.0150530338287354 -0.6945101022720337 6.093975067138672 11250855
-0.926288902759552 -0.7083386182785034 6.215313911437988 11842991
-0.8297393918037415 -0.7191075682640076 6.309805870056152 11382441
-0.7299761772155762 -0.729976236820221 6.405172824859619 10723996
-0.6182827949523926 -0.7306979298591614 6.411505222320557 4933441
-0.48711976408958435 -0.7036174535751343 6.173888206481934 5261376
-0.3774394690990448 -0.7009590864181519 6.150562286376953 5195582
-0.1697474867105484 -0.4413435161113739 3.8725664615631104 8419962
-0.08835242688655853 -0.38286054134368896 3.359407901763916 6443084
-0.029283195734024048 -0.380681574344635 3.3402886390686035 6245188
0.028970731422305107 -0.3766195476055145 3.3046464920043945 5193788
0.08636055886745453 -0.3742291331291199 3.2836716175079346 2892318
0.14480331540107727 -0.37648868560791016 3.3034982681274414 4731436
0.22210589051246643 -0.4124824106693268 3.6193249225616455 5720645
0.29494166374206543 -0.4260268807411194 3.738170862197876 6443341
0.3673396706581116 -0.4341287612915039 3.809260606765747 8154217
0.4146902561187744 -0.4146902859210968 3.638698101043701 863528
0.4858853220939636 -0.4211006462574005 3.694945812225342 2768958
0.6807382702827454 -0.520564615726471 4.567691802978516 7949138
0.8225729465484619 -0.5628131628036499 4.938401222229004 1988510
0.7441939115524292 -0.46069151163101196 4.042335510253906 1200033
0.8638584017753601 -0.48826780915260315 4.284303665161133 1725856
2.4926834106445312 -1.2961955070495605 11.37346076965332 8151645
2.782775640487671 -1.3398550748825073 11.756551742553711 9732991
2.951908826828003 -1.3232696056365967 11.61102294921875 9601659
3.1481573581695557 -1.320195198059082 11.584046363830566 9272433
3.3322255611419678 -1.312695026397705 11.51823616027832 8811885
3.540668249130249 -1.3151054382324219 11.539386749267578 8614503
3.72251558303833 -1.3079111576080322 11.476259231567383 8022879
3.9014225006103516 -1.3004742860794067 11.411005020141602 7563096
4.073607921600342 -1.291631817817688 11.333417892456055 6971473
4.257782936096191 -1.2872369289398193 11.294853210449219 6051912
4.415424346923828 -1.2755670547485352 11.19245719909668 5393727
4.577879428863525 -1.2662221193313599 11.110459327697754 3881262
4.715434551239014 -1.251033902168274 10.977190017700195 3486503
4.852753639221191 -1.2369765043258667 10.85384464263916 2565915
5.02461576461792 -1.2324531078338623 10.814153671264648 3618344
5.218337059020996 -1.2334253787994385 10.822684288024902 4013106
5.374016761779785 -1.225653052330017 10.754487037658691 4342325
5.4829792976379395 -1.2081142663955688 10.600592613220215 4868155
5.636887073516846 -1.2013038396835327 10.5408353805542 5526085
5.753021240234375 -1.187131643295288 10.41648006439209 6644052
-2.256946086883545 -0.394070029258728 4.086450099945068 7295564
-2.195722818374634 -0.3959500789642334 4.105946063995361 7689290
-2.1306369304656982 -0.3972374200820923 4.119295597076416 8412500
-2.0638391971588135 -0.39828482270240784 4.130156993865967 7031108
-1.994014859199524 -0.3988030254840851 4.135530471801758 6705748
-1.9410821199417114 -0.4028661549091339 4.177664756774902 6244682
-1.8909085988998413 -0.40784308314323425 4.229274749755859 6639178
-1.837883710861206 -0.41258618235588074 4.2784600257873535 7097928
-1.7812665700912476 -0.4168922007083893 4.323112964630127 7097669
-1.7359955310821533 -0.42435452342033386 4.400496006011963 7494743
-1.8663924932479858 -0.47744929790496826 4.951081275939941 10987429
-1.8167251348495483 -0.4874141216278076 5.054415225982666 11382187
-1.7594417333602905 -0.4962528347969055 5.146071434020996 11842738
-1.7012388706207275 -0.5057737827301025 5.244801998138428 11448234
-1.6360055208206177 -0.5141732096672058 5.331902980804443 11908530
-1.5718517303466797 -0.5239506363868713 5.43329381942749 11250855
-1.5044682025909424 -0.5338436365127563 5.535882472991943 11908529
-1.434594750404358 -0.5441566705703735 5.64282751083374 11974578
-1.3607193231582642 -0.5543672442436218 5.748709201812744 12040370
-1.279375672340393 -0.5629253387451172 5.837455749511719 10724511
-1.1922721862792969 -0.5702171921730042 5.913071632385254 10724509
-1.1055896282196045 -0.5791184306144714 6.005375862121582 11842736
-1.0155895948410034 -0.5879729986190796 6.097196102142334 10658718
-0.9246917366981506 -0.5983299612998962 6.204596996307373 11448488
-0.8278483152389526 -0.6070888042449951 6.295424938201904 11842990
-0.7297794818878174 -0.6175057888031006 6.403447151184082 11711148
-0.6222912073135376 -0.6222912669181824 6.453072547912598 5460040
-0.5000391602516174 -0.6111589670181274 6.337632179260254 6246467
-0.3860473036766052 -0.6066458225250244 6.290831089019775 5457979
-0.15819577872753143 -0.34803077578544617 3.609029531478882 8157556
-0.09027135372161865 -0.33099499344825745 3.432371139526367 4929325
-0.02966080605983734 -0.32626891136169434 3.383362054824829 4863274
0.029436510056257248 -0.3238016366958618 3.3577771186828613 4664614
0.08903338015079498 -0.3264557719230652 3.3852999210357666 2760214
0.15125475823879242 -0.33276045322418213 3.450678825378418 6573382
0.23268136382102966 -0.3656421899795532 3.7916574478149414 6378832
0.3040022850036621 -0.37155839800834656 3.8530080318450928 6114120
0.3786761164665222 -0.3786761462688446 3.9268178939819336 7102043
0.4154876470565796 -0.35156649351119995 3.6456947326660156 666920
0.49572014808654785 -0.36352813243865967 3.769735097885132 3558215
0.6436975002288818 -0.4165101945400238 4.319151401519775 8220019
0.7211014628410339 -0.41747987270355225 4.329206943511963 7509947
0.7504456043243408 -0.3930906057357788 4.076293468475342 1134754
0.822141706943512 -0.39319825172424316 4.077409744262695 1068704
1.029867172241211 -0.45314159989356995 4.699014186859131 6108724
2.58551287651062 -1.0533572435379028 10.923164367675781 8480096
2.7590291500091553 -1.0465283393859863 10.852350234985352 9139054
2.9470996856689453 -1.0457451343536377 10.844228744506836 10258305
3.130244731903076 -1.0434150695800781 10.82006549835205 10455944
3.335801601409912 -1.0483949184417725 10.871706008911133 10325124
3.525883674621582 -1.0482357740402222 10.87005615234375 10062210
3.7055585384368896 -1.0451576709747314 10.838136672973633 10061443
3.892012357711792 -1.0441986322402954 10.828190803527832 9864833
4.090257167816162 -1.0463449954986572 10.850448608398438 9535354
4.268368244171143 -1.0433790683746338 10.819692611694336 9075059
4.434462547302246 -1.0378530025482178 10.762388229370117 8155239
4.5851664543151855 -1.0293232202529907 10.673934936523438 7497311
4.727252960205078 -1.0196036100387573 10.573144912719727 7958112
4.920983791351318 -1.021336317062378 10.591113090515137 6904915
5.107405185699463 -1.0214812755584717 10.592615127563477 6576460
5.254189491271973 -1.0139665603637695 10.514688491821289 6050889
5.381186485290527 -1.003272294998169 10.403790473937988 5919559
5.556953430175781 -1.0020736455917358 10.391361236572266 5327165
5.673071384429932 -0.9905363917350769 10.271721839904785 4143407
-2.266374111175537 -0.323767751455307 4.103520393371582 6836299
-2.205195665359497 -0.3253568112850189 4.123660087585449 7820879
-2.1383326053619385 -0.3261863589286804 4.134174346923828 8413271
-2.070558786392212 -0.3269304037094116 4.143604278564453 6767678
-1.9983322620391846 -0.32699984312057495 4.144484519958496 6572871
-1.9440957307815552 -0.3301295042037964 4.184150695800781 7492429
-1.8930416107177734 -0.3340662121772766 4.234045505523682 7098186
-1.840367317199707 -0.33802667260169983 4.284241676330566 7429984
-1.7826449871063232 -0.34135758876800537 4.32645845413208 7688777
-1.728102684020996 -0.34562060236930847 4.380488872528076 8546917
-1.8637117147445679 -0.39007923007011414 4.9439697265625 10592670
-1.8192946910858154 -0.3993574380874634 5.061563968658447 11382187
-1.758352518081665 -0.40577369928359985 5.142885684967041 11514027
-1.7014895677566528 -0.41387587785720825 5.245574951171875 11185061
-1.6372853517532349 -0.42101627588272095 5.336074352264404 11119013
-1.5756118297576904 -0.42971235513687134 5.446290969848633 11448234
-1.5105122327804565 -0.4385358393192291 5.558122158050537 11513771
-1.4439958333969116 -0.44813668727874756 5.679805755615234 11448234
-1.3717533349990845 -0.4572511613368988 5.795324802398682 10921890
-1.2901993989944458 -0.46447181701660156 5.886841773986816 9803667
-1.201198697090149 -0.4700343608856201 5.957342624664307 6449000
-1.1118321418762207 -0.4764995276927948 6.0392842292785645 11119267
-1.0178248882293701 -0.4821276366710663 6.110616207122803 11119267
-0.9262862801551819 -0.4903869330883026 6.215296745300293 11316646
-0.82745361328125 -0.49647220969200134 6.292423248291016 11316647
-0.7281855940818787 -0.5041285753250122 6.389461994171143 11250594
-0.6212860941886902 -0.5083250403404236 6.4426493644714355 7367261
-0.5074551105499268 -0.5074551701545715 6.431624412536621 7038039
-0.3894430994987488 -0.5007126331329346 6.34616756439209 5920079
-0.15810242295265198 -0.2845844030380249 3.6068997383117676 10000284
-0.09109119325876236 -0.2732735872268677 3.46354341506958 5652534
-0.03000454604625702 -0.27004095911979675 3.422572135925293 5653306
0.02987569011747837 -0.268881231546402 3.4078736305236816 8610136
0.09106899052858353 -0.27320700883865356 3.4626996517181396 1971729
0.15547381341457367 -0.27985289692878723 3.546931266784668 6048582
0.23568016290664673 -0.30301737785339355 3.840524435043335 7693920
0.30710265040397644 -0.30710268020629883 3.8923027515411377 6047553
0.3817732036113739 -0.31235992908477783 3.9589345455169678 8683388
0.41881197690963745 -0.2899467945098877 3.674863815307617 797737
0.48759353160858154 -0.29255613684654236 3.7079358100891113 3950918
0.6094523072242737 -0.3226512670516968 4.089369297027588 5534879
0.7008273005485535 -0.33197087049484253 4.207488536834717 2186660
0.7646464109420776 -0.32770565152168274 4.153429985046387 2251171
0.8488787412643433 -0.3321700096130371 4.210012435913086 1528224
0.9867553114891052 -0.3552319407463074 4.50230598449707 7491662
2.4017720222473145 -0.8005907535552979 10.146903991699219 10986143
2.5903894901275635 -0.8039141297340393 10.189024925231934 11381670
2.7811920642852783 -0.8074429631233215 10.23375129699707 10590865
2.938563346862793 -0.8014264106750488 10.157495498657227 9932418
3.123946189880371 -0.8033005595207214 10.181248664855957 9601914
3.2978034019470215 -0.8021684885025024 10.166900634765625 8612448
3.4779446125030518 -0.8026027083396912 10.172404289245605 9337190
3.6469624042510986 -0.8005528450012207 10.14642333984375 6638662
3.8297929763793945 -0.8015846610069275 10.159501075744629 9138021
4.005556583404541 -0.8011114001274109 10.153502464294434 9533812
4.177923202514648 -0.8000279068946838 10.1397705078125 9402999
4.314738750457764 -0.7925031781196594 10.04439926147461 9140854
4.4499430656433105 -0.785284161567688 9.952903747558594 9273213
